ply
format ascii 1.0
comment generated for the Isart PFE
element vertex 1992
property float32 x
property float32 y
property float32 z
end_header
0.4823 0.5339 0.7081
0.4722 0.5191 0.5592
0.4819 0.4533 0.3141
0.4984 0.4895 0.8645
0.5181 0.5266 0.9987
0.5260 0.5372 0.4057
0.5393 0.5114 0.3594
0.4839 0.5099 0.9937
0.4717 0.4831 0.8601
0.4800 0.4598 0.0022
0.4578 0.4958 0.5762
0.5424 0.4727 0.8774
0.4732 0.4657 0.0929
0.4952 0.4824 0.9841
0.4920 0.4784 0.5894
0.5185 0.5349 0.9304
0.4572 0.4688 0.0202
0.4882 0.5170 0.9557
0.5389 0.4567 0.0107
0.4662 0.5250 0.0802
0.4758 0.4719 0.3252
0.4839 0.4773 0.4687
0.4798 0.4586 0.8076
0.5375 0.4992 0.8623
0.4888 0.4924 0.5700
0.4870 0.5011 0.6641
0.4783 0.5010 0.4289
0.5143 0.5210 0.8648
0.5097 0.4856 0.9726
0.5332 0.4970 0.0572
0.4896 0.4858 0.4458
0.4742 0.4942 0.7089
0.5404 0.5118 0.2926
0.4674 0.5473 0.2160
0.4991 0.5405 0.1103
0.5099 0.4762 0.5563
0.5012 0.5223 0.7172
0.5124 0.5247 0.9090
0.4758 0.5449 0.2497
0.4515 0.5498 0.7833
0.5385 0.5049 0.6168
0.4929 0.4875 0.9352
0.4593 0.5384 0.6812
0.5264 0.5416 0.7625
0.4514 0.4745 0.9662
0.5413 0.5273 0.2097
0.5181 0.5372 0.9258
0.5323 0.4734 0.9801
0.4639 0.5453 0.0021
0.4583 0.4709 0.4960
0.4684 0.4818 0.9947
0.5169 0.4711 0.9566
0.5339 0.5291 0.5195
0.4736 0.5087 0.9116
0.5188 0.4688 0.0832
0.4692 0.4883 0.2768
0.5394 0.5331 0.6981
0.5238 0.4532 0.9984
0.4512 0.4785 0.9921
0.5067 0.4880 0.4837
0.5485 0.4656 0.3294
0.4715 0.5088 0.0299
0.4723 0.4597 0.0183
0.4624 0.4560 0.3428
0.5084 0.4628 0.1387
0.5222 0.4793 0.7371
0.4928 0.5394 0.9086
0.5461 0.5210 0.8250
0.5094 0.5447 0.6760
0.5212 0.4725 0.6076
0.5176 0.5096 0.3149
0.5029 0.5279 0.4175
0.4966 0.4985 0.9116
0.4952 0.5285 0.4353
0.4686 0.4774 0.4051
0.5445 0.5124 0.8646
0.4980 0.4744 0.3726
0.5493 0.4715 0.8249
0.5429 0.4841 0.7863
0.4935 0.5183 0.8862
0.4751 0.4558 0.2767
0.5468 0.4515 0.0583
0.4910 0.5374 0.5412
0.4772 0.5052 0.0287
0.4689 0.4687 0.1283
0.4741 0.5139 0.6832
0.5084 0.5155 0.6933
0.4546 0.4853 0.1638
0.5082 0.5197 0.4025
0.4514 0.5470 0.0099
0.5442 0.4604 0.5592
0.5301 0.5215 0.3080
0.4577 0.5304 0.9059
0.5168 0.5284 0.1738
0.4710 0.4590 0.0430
0.4619 0.5124 0.5778
0.5068 0.4690 0.6062
0.4597 0.4737 0.7031
0.5138 0.4576 0.1333
0.5009 0.5363 0.5506
0.4871 0.4824 0.2697
0.4758 0.5149 0.2251
0.5283 0.4919 0.6796
0.4562 0.5383 0.5793
0.4514 0.5313 0.8524
0.4521 0.4578 0.5254
0.5357 0.5159 0.1438
0.5225 0.5492 0.3497
0.5342 0.4505 0.2860
0.4891 0.5499 0.7457
0.5419 0.4918 0.4030
0.4562 0.5454 0.7334
0.4642 0.4983 0.0763
0.4657 0.5176 0.5297
0.4610 0.5113 0.8275
0.5116 0.4734 0.3954
0.4627 0.4739 0.7209
0.5267 0.5347 0.8497
0.5227 0.5024 0.5506
0.5185 0.5171 0.7222
0.4970 0.5085 0.3035
0.4841 0.4941 0.3043
0.4758 0.5409 0.2340
0.5466 0.5317 0.4873
0.4665 0.4576 0.2937
0.4721 0.4642 0.2102
0.4714 0.4939 0.2448
0.4851 0.4729 0.4207
0.5333 0.4603 0.5283
0.4718 0.5067 0.4742
0.5418 0.5417 0.6407
0.4680 0.5400 0.7066
0.5405 0.5106 0.0163
0.4728 0.5270 0.9033
0.4977 0.4835 0.9083
0.5114 0.4969 0.8663
0.4921 0.4649 0.9464
0.5421 0.5314 0.7974
0.5301 0.4521 0.8922
0.5229 0.4664 0.7697
0.4537 0.4978 0.0073
0.4599 0.4544 0.6748
0.5445 0.5096 0.9459
0.4671 0.5319 0.7391
0.5478 0.5266 0.4809
0.5233 0.5019 0.3345
0.4698 0.4880 0.9477
0.4878 0.5119 0.3333
0.5191 0.4880 0.8789
0.4545 0.4656 0.0165
0.4869 0.4622 0.8814
0.4915 0.5109 0.4353
0.5016 0.4967 0.0375
0.5479 0.4657 0.7758
0.4814 0.5308 0.4547
0.5351 0.5262 0.1745
0.5378 0.5348 0.2883
0.5039 0.5378 0.3489
0.4765 0.4861 0.8224
0.5313 0.5424 0.1204
0.5467 0.4689 0.8266
0.4921 0.4795 0.8478
0.4909 0.5179 0.9174
0.4500 0.5367 0.5379
0.5156 0.5489 0.2396
0.5164 0.4920 0.4501
0.5427 0.5455 0.5233
0.5345 0.4963 0.6721
0.4929 0.5019 0.3083
0.4555 0.5227 0.0728
0.5364 0.4849 0.9780
0.4844 0.4911 0.7809
0.5288 0.5287 0.3174
0.5308 0.4919 0.1250
0.5307 0.5168 0.6595
0.5086 0.5118 0.6378
0.5233 0.5058 0.4679
0.4896 0.4865 0.4653
0.4538 0.5189 0.2916
0.4567 0.4789 0.8572
0.5035 0.5400 0.0091
0.4907 0.4752 0.5675
0.4750 0.4625 0.4256
0.5248 0.4561 0.3188
0.4834 0.4812 0.2446
0.4840 0.4778 0.8972
0.4960 0.5145 0.7616
0.4508 0.5034 0.6739
0.5453 0.4782 0.3462
0.4767 0.5104 0.1810
0.5361 0.5183 0.9603
0.5138 0.5149 0.3706
0.4787 0.4721 0.3312
0.4672 0.4907 0.3415
0.4641 0.5236 0.1000
0.4706 0.5010 0.0266
0.4986 0.5041 0.3280
0.4517 0.4731 0.0660
0.4791 0.4697 0.7218
0.5331 0.5439 0.8021
0.5177 0.4592 0.7994
0.5127 0.5154 0.0414
0.5450 0.5425 0.5093
0.5257 0.4967 0.7143
0.5147 0.5233 0.3070
0.4870 0.5421 0.3152
0.4697 0.5319 0.8536
0.5291 0.4972 0.8107
0.5209 0.4949 0.7925
0.4635 0.5262 0.3493
0.4604 0.5472 0.5306
0.5176 0.4731 0.6412
0.5251 0.4720 0.0469
0.4799 0.5004 0.1872
0.5239 0.4863 0.5361
0.4581 0.5321 0.4945
0.4818 0.5444 0.8406
0.4925 0.4701 0.8016
0.5391 0.4664 0.3448
0.4718 0.4755 0.4053
0.5183 0.5373 0.2670
0.4878 0.4901 0.0843
0.5217 0.4597 0.5463
0.5045 0.5096 0.9503
0.5350 0.4721 0.8220
0.5025 0.4722 0.8627
0.4898 0.5380 0.5461
0.4722 0.4895 0.7965
0.4994 0.4909 0.4933
0.4906 0.4510 0.7168
0.5346 0.5321 0.2320
0.5290 0.5063 0.9468
0.5155 0.4517 0.1646
0.5277 0.5401 0.9889
0.4518 0.5319 0.5742
0.4916 0.5396 0.6999
0.4731 0.5240 0.4707
0.5362 0.5199 0.2416
0.4930 0.5313 0.4147
0.4865 0.4568 0.2773
0.5308 0.5152 0.3682
0.5216 0.4727 0.2087
0.5104 0.5229 0.5303
0.4891 0.4603 0.0186
0.4732 0.5141 0.9261
0.4916 0.5064 0.8125
0.5496 0.5234 0.3458
0.4755 0.5447 0.5858
0.5384 0.5185 0.8874
0.5200 0.4863 0.4558
0.4946 0.5151 0.6037
0.4817 0.5114 0.6147
0.4976 0.5237 0.8194
0.5167 0.4892 0.3294
0.4893 0.4882 0.3581
0.5321 0.5422 0.7833
0.4675 0.5309 0.3034
0.4894 0.4797 0.1067
0.4591 0.5465 0.0491
0.4999 0.5487 0.0574
0.4733 0.5120 0.2487
0.5188 0.4853 0.1653
0.5163 0.5043 0.0872
0.4953 0.5425 0.9735
0.5386 0.4531 0.8170
0.4703 0.5429 0.3237
0.5155 0.4503 0.4888
0.4691 0.4752 0.6497
0.5210 0.5027 0.0245
0.4678 0.4683 0.6598
0.5060 0.4519 0.2547
0.4786 0.4520 0.6166
0.5274 0.5030 0.2301
0.5037 0.5425 0.3312
0.4936 0.5158 0.9120
0.4966 0.5172 0.1681
0.4515 0.4888 0.4058
0.4816 0.5495 0.7012
0.4999 0.5135 0.2593
0.5464 0.4623 0.7007
0.4943 0.5303 0.3119
0.5001 0.5062 0.6632
0.5227 0.5396 0.6972
0.4602 0.4847 0.8494
0.4570 0.4799 0.5786
0.4966 0.4552 0.9722
0.5405 0.5231 0.0940
0.5331 0.5274 0.6736
0.4645 0.5236 0.8158
0.5324 0.5176 0.6727
0.5316 0.4809 0.1735
0.4854 0.5336 0.0888
0.4917 0.4658 0.3348
0.5378 0.5243 0.3348
0.5334 0.4877 0.2369
0.4825 0.5486 0.5142
0.4837 0.4766 0.8522
0.5478 0.4760 0.4141
0.5156 0.4657 0.2327
0.5328 0.5281 0.4324
0.5096 0.5191 0.9671
0.5214 0.5256 0.8163
0.4522 0.5180 0.9777
0.5248 0.4649 0.9784
0.5182 0.5201 0.2171
0.5097 0.5422 0.4003
0.5225 0.5422 0.2842
0.4643 0.5380 0.7812
0.5169 0.5109 0.1707
0.4696 0.4917 0.4695
0.5492 0.5482 0.8356
0.4539 0.4959 0.3038
0.4660 0.5037 0.0209
0.5018 0.5140 0.0995
0.4551 0.4708 0.4913
0.4698 0.5131 0.2406
0.4713 0.4730 0.7612
0.5197 0.4711 0.0481
0.5413 0.4959 0.9142
0.5464 0.4778 0.9775
0.4643 0.4958 0.9380
0.4732 0.4842 0.0574
0.5277 0.5145 0.9976
0.5178 0.4897 0.0010
0.4963 0.4618 0.1406
0.5108 0.5045 0.3934
0.4656 0.5418 0.2773
0.5044 0.4913 0.0314
0.4606 0.5039 0.5752
0.4641 0.5231 0.9882
0.5371 0.5193 0.1960
0.4858 0.4823 0.9214
0.4929 0.4650 0.7967
0.4699 0.5284 0.0463
0.4977 0.4708 0.0919
0.5170 0.5228 0.1635
0.4788 0.5321 0.6724
0.5378 0.4558 0.5792
0.5028 0.5499 0.8076
0.5314 0.4669 0.2086
0.4664 0.5339 0.6996
0.4574 0.5498 0.8479
0.5054 0.5113 0.3565
0.4971 0.4713 0.2567
0.5195 0.4792 0.9525
0.5356 0.5239 0.4544
0.4564 0.5153 0.2967
0.4768 0.5099 0.3135
0.5235 0.4869 0.2079
0.5306 0.4536 0.2294
0.5487 0.4910 0.0137
0.5318 0.5471 0.0395
0.5421 0.5474 0.4652
0.5150 0.4757 0.8848
0.5399 0.4504 0.5909
0.5147 0.4543 0.5456
0.5084 0.4509 0.1546
0.5231 0.4744 0.0875
0.5136 0.5139 0.4110
0.4590 0.4864 0.8704
0.5484 0.5044 0.7660
0.5183 0.4569 0.3494
0.4873 0.4541 0.7958
0.4973 0.4793 0.4849
0.5153 0.4788 0.6263
0.5267 0.5125 0.2943
0.4586 0.4914 0.4938
0.5386 0.4897 0.6121
0.4520 0.5425 0.3790
0.5442 0.4740 0.8894
0.4582 0.5269 0.4339
0.5418 0.4943 0.6039
0.5166 0.4937 0.8113
0.5366 0.5366 0.7770
0.5426 0.4630 0.5325
0.4644 0.5397 0.3103
0.4595 0.4917 0.9101
0.5149 0.5274 0.6740
0.5468 0.5211 0.3999
0.4946 0.4983 0.0146
0.4708 0.5357 0.3429
0.5026 0.4750 0.8607
0.5345 0.5022 0.5333
0.5274 0.4712 0.4017
0.4852 0.5421 0.7840
0.5391 0.4646 0.8935
0.5149 0.4900 0.3214
0.5313 0.4708 0.0604
0.5337 0.5036 0.0094
0.5309 0.5266 0.5037
0.4928 0.4880 0.4265
0.5478 0.4696 0.7637
0.5419 0.4842 0.4605
0.4956 0.5144 0.1982
0.5036 0.5159 0.0860
0.5340 0.5461 0.9333
0.4574 0.5304 0.6863
0.5289 0.5200 0.2210
0.5157 0.5266 0.4385
0.4615 0.5120 0.4774
0.4769 0.5034 0.1835
0.4643 0.5380 0.0648
0.5358 0.4547 0.0564
0.4625 0.4715 0.7620
0.5143 0.4551 0.1037
0.4622 0.4942 0.2915
0.5276 0.4949 0.5033
0.5142 0.4986 0.5117
0.5392 0.5298 0.7823
0.4669 0.5188 0.6302
0.5466 0.5008 0.2140
0.5493 0.5133 0.4713
0.5161 0.4797 0.8267
0.5423 0.4701 0.8677
0.4624 0.5193 0.5988
0.5325 0.5311 0.0310
0.5022 0.4584 0.6780
0.4947 0.4653 0.2735
0.4536 0.5415 0.0406
0.5067 0.4590 0.9433
0.4980 0.5475 0.9939
0.5248 0.4751 0.1012
0.4674 0.5005 0.3869
0.4627 0.5233 0.7841
0.4892 0.5409 0.3654
0.4825 0.5500 0.1292
0.5136 0.4786 0.6208
0.4631 0.4562 0.0146
0.4989 0.5198 0.2416
0.4858 0.4545 0.4225
0.5102 0.4680 0.2174
0.5016 0.4672 0.1939
0.4668 0.5200 0.2925
0.4936 0.4920 0.9678
0.4699 0.5466 0.6496
0.5177 0.5118 0.6359
0.5329 0.5287 0.0596
0.4593 0.4756 0.3060
0.4938 0.4846 0.5886
0.4823 0.4816 0.2143
0.5383 0.5134 0.4866
0.4586 0.4800 0.1687
0.5069 0.5182 0.9226
0.4916 0.5118 0.9477
0.4554 0.5028 0.1284
0.5365 0.5165 0.7474
0.5156 0.5206 0.6687
0.4843 0.4703 0.9376
0.5057 0.5109 0.2596
0.4994 0.4966 0.7965
0.4550 0.5241 0.1421
0.5001 0.5159 0.6777
0.5303 0.4883 0.3158
0.5243 0.4591 0.1427
0.5145 0.5112 0.8736
0.5205 0.5406 0.5191
0.4527 0.4648 0.0514
0.5415 0.5118 0.8872
0.4708 0.5226 0.6163
0.5481 0.4700 0.5351
0.5062 0.5397 0.0707
0.5216 0.5232 0.0949
0.5197 0.4978 0.3850
0.5225 0.4945 0.2088
0.5350 0.5040 0.6982
0.5137 0.4800 0.3278
0.5394 0.4914 0.0315
0.4908 0.4759 0.0555
0.5260 0.5144 0.1883
0.4824 0.5013 0.3193
0.4643 0.5292 0.4339
0.5171 0.5275 0.9489
0.4926 0.4572 0.6810
0.5255 0.4776 0.6330
0.5102 0.4791 0.7941
0.5181 0.5264 0.5739
0.4779 0.4698 0.8668
0.5122 0.5084 0.6551
0.4746 0.4698 0.8724
0.4709 0.5428 0.0872
0.5136 0.4545 0.4184
0.4791 0.5323 0.2168
0.4980 0.5049 0.1672
0.5462 0.4867 0.7036
0.4740 0.4507 0.7830
0.4904 0.5004 0.6535
0.5099 0.4853 0.2864
0.4949 0.4852 0.5584
0.5418 0.4504 0.4693
0.4991 0.4809 0.5091
0.5366 0.5488 0.3222
0.4660 0.5156 0.0488
0.5044 0.5319 0.7591
0.5303 0.5357 0.1896
0.4955 0.4891 0.2250
0.4704 0.5056 0.2438
0.4895 0.4997 0.1671
0.4871 0.5192 0.0874
0.5132 0.4586 0.1199
0.4641 0.5162 0.6471
0.5242 0.5421 0.4017
0.4807 0.5267 0.8107
0.4606 0.5165 0.1138
0.4965 0.5135 0.9837
0.5406 0.5412 0.6986
0.5084 0.4719 0.2338
0.5462 0.5201 0.5429
0.5345 0.4610 0.8049
0.5127 0.5494 0.3636
0.5295 0.4526 0.4366
0.4613 0.4717 0.9723
0.4511 0.5320 0.0800
0.4658 0.5119 0.0807
0.4564 0.5483 0.9747
0.5408 0.4997 0.5678
0.4600 0.5374 0.1599
0.5312 0.5147 0.5713
0.4699 0.4772 0.7824
0.4513 0.4716 0.1006
0.5075 0.5214 0.8250
0.4910 0.5124 0.1824
0.4837 0.4579 0.5195
0.4504 0.5354 0.8475
0.5300 0.4712 0.8427
0.5247 0.5004 0.5458
0.5294 0.5328 0.2133
0.5301 0.5339 0.9146
0.5351 0.4852 0.9668
0.4811 0.4626 0.3617
0.5155 0.5423 0.5242
0.4517 0.5122 0.7084
0.5044 0.4695 0.5186
0.4515 0.4859 0.2234
0.4904 0.4891 0.6358
0.4911 0.4894 0.1338
0.5381 0.5003 0.9460
0.5414 0.4861 0.7774
0.5000 0.4744 0.6893
0.5105 0.4950 0.4737
0.5469 0.5394 0.3657
0.4960 0.4678 0.8852
0.4540 0.5067 0.2096
0.5094 0.5209 0.7793
0.5302 0.5168 0.7201
0.5190 0.4645 0.9551
0.5392 0.4999 0.7954
0.5211 0.5224 0.2629
0.5429 0.5389 0.3200
0.4850 0.5152 0.9209
0.5060 0.5432 0.3437
0.5168 0.4638 0.2637
0.5384 0.4762 0.4844
0.4755 0.5451 0.6643
0.5218 0.5441 0.0814
0.5354 0.5395 0.8696
0.4738 0.5143 0.0505
0.4803 0.5196 0.5521
0.5388 0.4671 0.1380
0.4694 0.5261 0.1172
0.5264 0.4645 0.1444
0.4583 0.5215 0.3933
0.4590 0.4695 0.5932
0.4659 0.5046 0.3441
0.4887 0.4906 0.4674
0.4576 0.4596 0.5607
0.4917 0.5440 0.5314
0.5474 0.4643 0.5150
0.4891 0.4721 0.0932
0.5398 0.5260 0.3023
0.5073 0.5217 0.6803
0.5268 0.4738 0.2458
0.4816 0.5088 0.3535
0.5344 0.4765 0.8253
0.5305 0.4532 0.8166
0.4727 0.5364 0.8981
0.5365 0.5431 0.0910
0.5352 0.4805 0.9601
0.5249 0.4897 0.3439
0.5442 0.5265 0.5394
0.4968 0.4895 0.0075
0.5331 0.4790 0.7641
0.4558 0.4842 0.8755
0.4570 0.4586 0.1221
0.5432 0.4763 0.7196
0.5095 0.4799 0.7710
0.5368 0.4983 0.4812
0.4737 0.4772 0.5502
0.5189 0.4551 0.7033
0.4503 0.5469 0.2192
0.4833 0.5196 0.2093
0.5172 0.4621 0.2871
0.4923 0.5280 0.2820
0.5431 0.4953 0.9547
0.4513 0.5359 0.9956
0.5149 0.4578 0.2971
0.5300 0.5041 0.4449
0.5298 0.5074 0.9605
0.5156 0.4668 0.7569
0.4779 0.4697 0.4779
0.5077 0.4609 0.6264
0.5052 0.5226 0.0261
0.4576 0.5217 0.3189
0.4512 0.4632 0.0012
0.5275 0.5293 0.8524
0.4784 0.4653 0.0493
0.5219 0.4539 0.7729
0.4851 0.4613 0.7527
0.5086 0.4688 0.3182
0.5001 0.5097 0.5932
0.4777 0.5077 0.3822
0.4587 0.4679 0.8802
0.4583 0.4515 0.7457
0.4727 0.5103 0.9417
0.5263 0.4977 0.2176
0.4981 0.5155 0.2348
0.4783 0.5152 0.4831
0.4563 0.5063 0.1624
0.5024 0.5081 0.4602
0.5463 0.5180 0.2222
0.4678 0.5162 0.1685
0.5172 0.5057 0.3013
0.5467 0.4505 0.1386
0.5089 0.4523 0.7294
0.4903 0.4719 0.3632
0.5445 0.5266 0.3109
0.5081 0.5224 0.5737
0.4848 0.4524 0.7229
0.5050 0.5417 0.1370
0.5081 0.4826 0.2623
0.4621 0.4818 0.6598
0.5031 0.5255 0.0564
0.5303 0.4579 0.4467
0.5381 0.5397 0.2608
0.4804 0.5473 0.8639
0.4549 0.4626 0.0951
0.4720 0.5079 0.7330
0.4738 0.4927 0.5443
0.5018 0.5490 0.6079
0.5482 0.5203 0.2687
0.5248 0.4846 0.0269
0.5012 0.5164 0.0958
0.4932 0.4508 0.1913
0.5220 0.4931 0.8923
0.5168 0.4528 0.3863
0.5413 0.5014 0.0253
0.4866 0.4613 0.7306
0.5349 0.5077 0.2233
0.4725 0.4539 0.7085
0.5413 0.5016 0.4311
0.4871 0.4942 0.4573
0.4704 0.4719 0.8205
0.4553 0.5210 0.8647
0.5379 0.4615 0.9569
0.4563 0.4571 0.5689
0.4701 0.5426 0.7919
0.5479 0.4817 0.6781
0.4788 0.5223 0.8496
0.4527 0.4984 0.7220
0.4723 0.5127 0.2071
0.5406 0.5135 0.4809
0.5331 0.5035 0.8352
0.5320 0.5416 0.0577
0.5227 0.5401 0.6717
0.5308 0.4882 0.6628
0.4631 0.5314 0.9298
0.4744 0.5349 0.6718
0.4709 0.4755 0.9287
0.5015 0.5116 0.2341
0.5239 0.4685 0.8447
0.4920 0.5493 0.1731
0.5362 0.4993 0.7673
0.4738 0.5278 0.0297
0.4612 0.5328 0.9638
0.5283 0.5016 0.8069
0.5004 0.4892 0.7578
0.4950 0.4946 0.9869
0.5342 0.5211 0.4824
0.4943 0.5230 0.9999
0.5252 0.4783 0.1575
0.5078 0.5331 0.7619
0.5245 0.4580 0.8426
0.4993 0.4595 0.0645
0.5252 0.4769 0.7644
0.5074 0.4659 0.3087
0.5357 0.4835 0.9647
0.5444 0.5349 0.5357
0.5113 0.5174 0.2775
0.4972 0.4893 0.4563
0.4996 0.4651 0.6844
0.5402 0.5084 0.9945
0.5075 0.4750 0.9608
0.5105 0.5399 0.7425
0.5143 0.4510 0.4248
0.4664 0.4570 0.0420
0.5471 0.5477 0.4497
0.4526 0.4681 0.4518
0.5196 0.5229 0.4148
0.5001 0.4839 0.4747
0.4747 0.4898 0.3762
0.4550 0.5363 0.5418
0.4509 0.4609 0.5623
0.4791 0.4909 0.7177
0.4837 0.5120 0.2158
0.5493 0.5270 0.2936
0.4817 0.5126 0.7911
0.5445 0.4648 0.6876
0.5072 0.4692 0.0615
0.4914 0.5249 0.8794
0.5295 0.5436 0.7033
0.4761 0.4511 0.5442
0.4980 0.5251 0.0874
0.4516 0.4862 0.6438
0.5383 0.5250 0.1009
0.4955 0.5465 0.2617
0.4779 0.4795 0.4119
0.5035 0.4551 0.3564
0.4708 0.4637 0.0994
0.5427 0.5142 0.6198
0.5150 0.4545 0.0211
0.5042 0.5339 0.6211
0.4502 0.5495 0.8979
0.5255 0.4513 0.9771
0.5246 0.5157 0.5247
0.4500 0.5457 0.6823
0.5322 0.5208 0.9168
0.4815 0.5140 0.7083
0.4816 0.4680 0.9606
0.5148 0.5182 0.2979
0.5308 0.5232 0.8000
0.4660 0.4619 0.0049
0.4624 0.5415 0.2313
0.4851 0.5007 0.6037
0.4761 0.4580 0.6188
0.5388 0.4879 0.2504
0.4921 0.5104 0.4567
0.5041 0.4586 0.4339
0.5225 0.5493 0.7573
0.4512 0.4573 0.3044
0.4625 0.5351 0.3858
0.5298 0.5398 0.8654
0.5290 0.4936 0.7083
0.5389 0.4656 0.4815
0.5480 0.4889 0.7646
0.5064 0.5270 0.2311
0.4604 0.5204 0.0554
0.5106 0.5113 0.7535
0.4899 0.5072 0.8180
0.4987 0.5420 0.8098
0.4678 0.5022 0.8273
0.5213 0.4532 0.2010
0.4843 0.4532 0.9326
0.4835 0.5227 0.0464
0.5447 0.5081 0.4071
0.4778 0.4691 0.0289
0.4852 0.4786 0.3838
0.4664 0.4817 0.9963
0.4834 0.4981 0.7082
0.4552 0.4993 0.5345
0.4569 0.4839 0.9483
0.5154 0.4861 0.9532
0.4863 0.5450 0.6325
0.5050 0.5408 0.1835
0.4990 0.5466 0.9654
0.4987 0.4593 0.9049
0.5122 0.5338 0.7891
0.5058 0.5253 0.0685
0.4507 0.4877 0.2273
0.5206 0.5360 0.8297
0.5139 0.5292 0.2721
0.5024 0.4662 0.0701
0.4813 0.4926 0.1180
0.4722 0.4671 0.2322
0.5211 0.5393 0.2879
0.5154 0.5187 0.3269
0.4739 0.4608 0.4521
0.4578 0.5478 0.2762
0.5194 0.5039 0.9796
0.4976 0.4868 0.2948
0.5022 0.5368 0.3200
0.5088 0.4960 0.4950
0.5268 0.5167 0.0809
0.4621 0.5316 0.7745
0.5443 0.4917 0.9046
0.4862 0.4561 0.3897
0.5466 0.4662 0.4097
0.5224 0.4689 0.1170
0.5134 0.5494 0.0349
0.4725 0.5025 0.7018
0.4649 0.4980 0.6688
0.5127 0.5040 0.1301
0.5482 0.4559 0.2472
0.5382 0.5366 0.0102
0.5356 0.5107 0.7757
0.5426 0.4923 0.7977
0.5139 0.4836 0.6268
0.5423 0.4964 0.8860
0.4758 0.5289 0.6429
0.5458 0.5472 0.8814
0.4723 0.5148 0.8614
0.4572 0.5234 0.4118
0.5098 0.4567 0.7990
0.4839 0.4791 0.0345
0.5161 0.5318 0.8242
0.4951 0.4744 0.0615
0.4888 0.4563 0.2153
0.4680 0.4678 0.1372
0.5424 0.4692 0.9819
0.5192 0.4997 0.6870
0.5117 0.4997 0.5463
0.4517 0.4583 0.8484
0.4661 0.4979 0.8457
0.5331 0.4833 0.1167
0.5116 0.4574 0.1258
0.4823 0.4713 0.6517
0.5157 0.5104 0.6630
0.5084 0.4900 0.3858
0.4557 0.4504 0.4481
0.4601 0.4871 0.9336
0.5334 0.5445 0.5395
0.5229 0.5321 0.9173
0.5118 0.5284 0.3588
0.4896 0.4765 0.6043
0.4511 0.5203 0.8825
0.4822 0.4787 0.2430
0.5163 0.5422 0.1152
0.4916 0.4926 0.9257
0.5376 0.5168 0.2081
0.5488 0.5112 0.5132
0.4942 0.4909 0.9460
0.4604 0.5300 0.5486
0.4885 0.4729 0.1306
0.4923 0.5053 0.1993
0.4731 0.5206 0.0957
0.4564 0.5175 0.0320
0.4945 0.4517 0.9090
0.5402 0.5341 0.6257
0.5030 0.5311 0.2092
0.4622 0.4846 0.1493
0.5120 0.4920 0.7998
0.4536 0.5182 0.7941
0.4716 0.4528 0.5476
0.4511 0.4621 0.6102
0.4686 0.5462 0.2164
0.4843 0.4736 0.1304
0.5200 0.4728 0.8200
0.5124 0.5251 0.1832
0.4984 0.5304 0.1968
0.4612 0.4939 0.9361
0.4813 0.4955 0.3082
0.5440 0.4560 0.5852
0.5402 0.5367 0.1615
0.4773 0.5030 0.9166
0.5415 0.4610 0.3617
0.5157 0.5191 0.4589
0.4826 0.4605 0.2910
0.4568 0.4558 0.7252
0.4749 0.5059 0.4149
0.5265 0.4935 0.9756
0.5161 0.4576 0.7096
0.5220 0.4653 0.8122
0.4666 0.5055 0.9335
0.5394 0.4983 0.1094
0.4642 0.5306 0.5272
0.5480 0.4857 0.1816
0.5466 0.4916 0.6568
0.5182 0.5368 0.3021
0.5465 0.4907 0.4744
0.5208 0.5061 0.2058
0.5138 0.5317 0.4544
0.4779 0.4727 0.6635
0.4849 0.5069 0.1698
0.4687 0.4632 0.5970
0.4990 0.4730 0.1485
0.4940 0.5366 0.7602
0.4736 0.5395 0.2410
0.4554 0.4833 0.7319
0.5163 0.5244 0.6957
0.5410 0.4920 0.3811
0.5169 0.5419 0.1248
0.4788 0.4746 0.4919
0.4672 0.5380 0.9582
0.5344 0.4503 0.2589
0.5279 0.4798 0.3815
0.5343 0.4531 0.5042
0.5208 0.5336 0.1120
0.5408 0.5464 0.2661
0.5141 0.4931 0.9578
0.4618 0.4851 0.7719
0.5394 0.5458 0.0559
0.4567 0.4542 0.2272
0.4636 0.4790 0.9110
0.5371 0.4864 0.5297
0.5170 0.4628 0.6262
0.5420 0.5060 0.4929
0.4588 0.4851 0.8974
0.5187 0.4901 0.9141
0.5479 0.4522 0.7927
0.4940 0.4653 0.2301
0.4578 0.5205 0.0670
0.5460 0.4678 0.9286
0.4911 0.5336 0.5152
0.5248 0.4544 0.3905
0.5366 0.4795 0.2150
0.5483 0.5114 0.8233
0.4857 0.5360 0.4997
0.5386 0.5458 0.5281
0.5395 0.5471 0.1442
0.4757 0.5179 0.6753
0.5267 0.5262 0.2326
0.5105 0.4722 0.4593
0.5477 0.4642 0.6616
0.4687 0.4701 0.3511
0.4956 0.5297 0.5350
0.5014 0.4762 0.7412
0.4783 0.5060 0.8460
0.4685 0.4677 0.1678
0.5037 0.5173 0.4616
0.5353 0.5305 0.7027
0.4884 0.4513 0.7928
0.4716 0.4740 0.5956
0.5291 0.4939 0.3853
0.4799 0.5377 0.9697
0.4947 0.5057 0.5582
0.5372 0.4734 0.0283
0.5068 0.4729 0.2438
0.5269 0.4584 0.1246
0.5237 0.5246 0.6129
0.5134 0.5139 0.0303
0.5117 0.4882 0.8085
0.4756 0.5079 0.5642
0.5072 0.5179 0.5741
0.4934 0.5306 0.4120
0.5327 0.4588 0.3523
0.4951 0.5269 0.2858
0.5036 0.4635 0.4240
0.5484 0.5192 0.1515
0.5222 0.4659 0.0670
0.5056 0.5356 0.0864
0.4946 0.4963 0.3489
0.5115 0.4750 0.6389
0.5377 0.5218 0.3808
0.4765 0.4857 0.8698
0.4996 0.4532 0.6541
0.4537 0.4913 0.6232
0.5360 0.5079 0.7905
0.4708 0.4929 0.8619
0.4976 0.4505 0.9795
0.5192 0.5436 0.9804
0.4636 0.5010 0.3899
0.5432 0.4830 0.6479
0.4588 0.5357 0.8740
0.4944 0.5279 0.8367
0.5496 0.5302 0.3607
0.5454 0.4770 0.5066
0.5056 0.4513 0.7407
0.4604 0.5246 0.4638
0.5051 0.5394 0.2759
0.4868 0.4707 0.9218
0.5124 0.5185 0.5275
0.4681 0.5003 0.2865
0.5315 0.4887 0.0824
0.4980 0.4765 0.1048
0.5268 0.5041 0.4703
0.4515 0.4536 0.1993
0.4796 0.4697 0.2916
0.4650 0.5025 0.9970
0.4696 0.5237 0.4428
0.5239 0.5268 0.5850
0.5189 0.4682 0.9744
0.5371 0.5037 0.8502
0.4678 0.4782 0.2823
0.4773 0.4522 0.3750
0.4995 0.5366 0.6202
0.4623 0.5358 0.6465
0.5295 0.5011 0.8002
0.5072 0.5152 0.5766
0.4872 0.4729 0.0976
0.4519 0.5094 0.8771
0.4525 0.5028 0.2658
0.5181 0.4547 0.1143
0.4998 0.5423 0.2648
0.5496 0.5312 0.8084
0.5033 0.5336 0.8820
0.5066 0.5275 0.9678
0.5417 0.4754 0.2923
0.5304 0.4680 0.2373
0.4795 0.4638 0.6211
0.4830 0.5022 0.1163
0.4557 0.4636 0.0821
0.4708 0.5064 0.1730
0.4971 0.5470 0.1504
0.4794 0.5026 0.6179
0.4649 0.5400 0.8614
0.4957 0.4768 0.8826
0.5057 0.5182 0.6999
0.5023 0.5292 0.4390
0.4921 0.4609 0.4023
0.5124 0.5050 0.7343
0.5275 0.4581 0.2646
0.5325 0.4983 0.8774
0.4592 0.4821 0.6170
0.5169 0.5384 0.7322
0.4638 0.5201 0.4417
0.4582 0.4871 0.7847
0.5048 0.5234 0.3761
0.5198 0.5054 0.5036
0.5047 0.5364 0.7611
0.4941 0.4777 0.9244
0.4800 0.5192 0.6803
0.4694 0.4999 0.0298
0.4585 0.5157 0.8740
0.5325 0.4776 0.5563
0.5468 0.5183 0.9033
0.5147 0.5344 0.6225
0.4720 0.4554 0.9233
0.5140 0.5236 0.5612
0.4741 0.5053 0.3310
0.5144 0.4599 0.9200
0.5113 0.4925 0.3215
0.4986 0.4845 0.5206
0.4508 0.5357 0.9646
0.5219 0.5139 0.3326
0.5032 0.4749 0.0132
0.4605 0.5221 0.3729
0.4788 0.5026 0.9364
0.4992 0.4587 0.7277
0.5495 0.4536 0.5939
0.5344 0.5047 0.4501
0.5140 0.4744 0.8987
0.4818 0.4554 0.9463
0.5043 0.5073 0.3626
0.5395 0.5306 0.6321
0.4604 0.4791 0.3247
0.5180 0.5412 0.7907
0.4609 0.5362 0.5362
0.4887 0.5312 0.3751
0.5232 0.5402 0.7281
0.5138 0.5221 0.8584
0.4801 0.5392 0.4485
0.4708 0.5288 0.4439
0.4544 0.5285 0.4353
0.4624 0.4950 0.4989
0.4710 0.5266 0.8333
0.5035 0.5002 0.2540
0.5245 0.5053 0.1106
0.5223 0.4791 0.0948
0.5333 0.4612 0.1383
0.4540 0.5241 0.3786
0.4585 0.4700 0.5791
0.4956 0.5200 0.2092
0.5194 0.5363 0.5034
0.4883 0.5454 0.0649
0.5322 0.5039 0.3240
0.4533 0.4981 0.0276
0.5032 0.5407 0.9840
0.4640 0.5130 0.8123
0.4678 0.4710 0.0577
0.5368 0.5294 0.6218
0.5352 0.4794 0.7036
0.4756 0.4706 0.7612
0.5334 0.4602 0.0825
0.4762 0.5301 0.0694
0.5263 0.5334 0.0030
0.5251 0.5229 0.0983
0.4667 0.5486 0.6718
0.5283 0.4916 0.3899
0.4897 0.4853 0.1763
0.5213 0.4883 0.0623
0.5063 0.5481 0.4083
0.5254 0.4840 0.0160
0.4617 0.4615 0.9074
0.5013 0.5402 0.7264
0.4695 0.4594 0.1336
0.5255 0.4614 0.1987
0.5136 0.4822 0.9355
0.4826 0.4884 0.2796
0.4768 0.4894 0.2432
0.5031 0.4828 0.5569
0.5110 0.4566 0.1981
0.4694 0.5209 0.0240
0.5189 0.5191 0.3520
0.5081 0.5190 0.7516
0.5136 0.5303 0.6784
0.4759 0.5374 0.5236
0.4955 0.4909 0.4192
0.4990 0.5182 0.7542
0.4709 0.4580 0.8810
0.4690 0.5159 0.8129
0.5054 0.4500 0.2693
0.5070 0.4664 0.2026
0.4852 0.4888 0.4174
0.5115 0.5069 0.0055
0.5319 0.4781 0.3955
0.5235 0.4876 0.3203
0.5186 0.5439 0.7984
0.4965 0.4669 0.7087
0.5098 0.4558 0.4280
0.5173 0.5498 0.3505
0.4910 0.4956 0.9763
0.5230 0.4886 0.4949
0.4953 0.5118 0.0670
0.4799 0.4602 0.0336
0.5066 0.4785 0.5965
0.4869 0.5226 0.9426
0.4929 0.5377 0.0377
0.4883 0.4534 0.5559
0.5477 0.4718 0.8594
0.4937 0.5290 0.3209
0.5331 0.4624 0.7349
0.5315 0.4733 0.5195
0.5201 0.5252 0.9633
0.5326 0.5358 0.5842
0.4713 0.4650 0.2459
0.5407 0.5129 0.5205
0.5105 0.5269 0.4127
0.5334 0.4542 0.5509
0.5258 0.4711 0.1001
0.4965 0.4671 0.6793
0.5126 0.4954 0.7337
0.5036 0.5039 0.7643
0.4802 0.5015 0.3237
0.4818 0.5236 0.9113
0.5371 0.5319 0.5000
0.4861 0.4968 0.0429
0.4652 0.4796 0.8453
0.4998 0.5035 0.9360
0.4583 0.5030 0.2693
0.4530 0.5326 0.9383
0.5307 0.4771 0.4940
0.4856 0.4756 0.3375
0.4980 0.4557 0.1721
0.5003 0.4945 0.9831
0.5235 0.5420 0.6023
0.5284 0.5112 0.3464
0.5024 0.5333 0.1282
0.5452 0.4514 0.9324
0.4762 0.4983 0.1472
0.4791 0.5479 0.8734
0.4950 0.4819 0.4065
0.4922 0.4570 0.6421
0.4717 0.4782 0.8774
0.5353 0.4705 0.5163
0.5470 0.5233 0.8156
0.4938 0.5164 0.2769
0.5334 0.4642 0.1650
0.5167 0.5095 0.2116
0.4775 0.5107 0.9702
0.4788 0.5033 0.4024
0.5125 0.5232 0.9068
0.4658 0.4685 0.1176
0.5474 0.4691 0.1285
0.4957 0.5475 0.1538
0.4910 0.5126 0.7408
0.5093 0.4646 0.1640
0.5342 0.4851 0.7961
0.5127 0.4883 0.4002
0.4998 0.5449 0.9770
0.4790 0.4546 0.0507
0.4670 0.4573 0.6193
0.4824 0.5145 0.1958
0.5226 0.5381 0.7139
0.4522 0.4866 0.2283
0.4621 0.4676 0.3055
0.4682 0.5365 0.5092
0.5317 0.4523 0.8606
0.4843 0.5015 0.4664
0.4651 0.4730 0.2369
0.4827 0.4537 0.8520
0.5373 0.4717 0.8822
0.4620 0.5093 0.8803
0.5006 0.4569 0.3787
0.4652 0.4795 0.9710
0.4601 0.5142 0.0698
0.5250 0.5422 0.1790
0.5242 0.5414 0.4613
0.5276 0.4863 0.4599
0.5147 0.5404 0.0863
0.5003 0.4680 0.0411
0.5236 0.5159 0.0385
0.4940 0.4532 0.9192
0.5273 0.4551 0.8274
0.5124 0.5027 0.0088
0.5357 0.5059 0.2372
0.4705 0.4587 0.5383
0.4904 0.5370 0.3665
0.5003 0.4540 0.3176
0.5143 0.5447 0.0411
0.5090 0.4531 0.8013
0.4655 0.5159 0.6156
0.4519 0.5204 0.3813
0.5250 0.4516 0.9090
0.4584 0.4614 0.0776
0.5180 0.5054 0.9545
0.4815 0.4883 0.6535
0.4637 0.4587 0.7861
0.5103 0.4785 0.6869
0.5015 0.5253 0.0302
0.5432 0.4588 0.6868
0.5292 0.5380 0.0920
0.5168 0.4879 0.3179
0.5314 0.5094 0.4587
0.4736 0.4794 0.8878
0.5057 0.5110 0.5916
0.5022 0.5268 0.1220
0.5287 0.5283 0.4666
0.5247 0.5093 0.5000
0.4703 0.4944 0.3569
0.4946 0.4686 0.9503
0.4864 0.4924 0.6007
0.4964 0.5368 0.8069
0.4829 0.4845 0.5449
0.5052 0.4553 0.4590
0.4902 0.4503 0.7398
0.5286 0.5490 0.2715
0.4848 0.5147 0.9360
0.4838 0.5216 0.3979
0.4753 0.5367 0.3410
0.4703 0.5466 0.7096
0.5030 0.4596 0.5256
0.4628 0.5362 0.7033
0.5356 0.4958 0.7718
0.4526 0.5208 0.2444
0.5190 0.5330 0.5367
0.5444 0.4737 0.7650
0.4881 0.5367 0.2570
0.4522 0.5347 0.6677
0.5118 0.4849 0.6798
0.4977 0.5009 0.5910
0.5056 0.5044 0.2527
0.4566 0.4549 0.6862
0.5428 0.5283 0.8940
0.4939 0.5237 0.7593
0.4707 0.4848 0.6647
0.4998 0.4579 0.2589
0.4787 0.4526 0.4070
0.4918 0.5253 0.7323
0.5027 0.5081 0.8572
0.5225 0.4753 0.5688
0.5159 0.5285 0.2075
0.4511 0.4507 0.0078
0.4866 0.5349 0.3313
0.5231 0.4836 0.4332
0.4773 0.4795 0.6595
0.5206 0.4930 0.7964
0.4558 0.4868 0.9960
0.4852 0.5000 0.0131
0.5236 0.4982 0.1427
0.5142 0.5073 0.5815
0.5423 0.4536 0.6005
0.4868 0.5317 0.3920
0.5183 0.5275 0.2497
0.5062 0.5142 0.3419
0.4891 0.5216 0.2288
0.5136 0.4648 0.0639
0.5380 0.5428 0.9091
0.4706 0.4945 0.3912
0.4878 0.4875 0.8593
0.4606 0.4506 0.3400
0.4911 0.4874 0.2633
0.5261 0.4799 0.6219
0.5342 0.5207 0.4501
0.4770 0.5095 0.2528
0.5018 0.5330 0.5016
0.4978 0.4594 0.7646
0.4619 0.5190 0.6707
0.4938 0.4709 0.8887
0.4782 0.5029 0.6667
0.4610 0.5282 0.9264
0.5225 0.5213 0.5948
0.5331 0.5138 0.1702
0.4903 0.5185 0.6572
0.4947 0.5128 0.9539
0.5184 0.5421 0.0540
0.4751 0.4858 0.1113
0.4959 0.5034 0.5846
0.4629 0.4681 0.6929
0.4762 0.5462 0.2009
0.4684 0.4527 0.3744
0.4806 0.5212 0.6427
0.4680 0.4591 0.3363
0.4994 0.4929 0.3161
0.4809 0.5145 0.8380
0.4963 0.4809 0.1391
0.4789 0.5071 0.9200
0.5076 0.4772 0.2818
0.4879 0.5014 0.9695
0.4933 0.5036 0.2525
0.4997 0.4762 0.7095
0.5143 0.5468 0.6628
0.5283 0.5346 0.2852
0.4567 0.4671 0.2303
0.5368 0.5134 0.0595
0.4614 0.4744 0.8141
0.5447 0.4607 0.2382
0.4633 0.4575 0.6786
0.4655 0.4860 0.2264
0.4981 0.4794 0.3378
0.4862 0.5262 0.1735
0.4902 0.5213 0.5726
0.5191 0.5473 0.1233
0.5326 0.4924 0.2643
0.4871 0.5500 0.2886
0.4850 0.5304 0.2084
0.5037 0.5363 0.2561
0.5155 0.5461 0.9990
0.4996 0.4630 0.7700
0.5004 0.5306 0.4891
0.5466 0.5041 0.4976
0.5378 0.4884 0.9616
0.4512 0.4689 0.0747
0.4803 0.5480 0.8585
0.5453 0.4700 0.1438
0.5208 0.5431 0.6291
0.4590 0.4905 0.6782
0.4511 0.5373 0.7101
0.5362 0.5097 0.5099
0.5024 0.4544 0.6226
0.5053 0.4625 0.1022
0.4924 0.4829 0.8596
0.4714 0.4588 0.6168
0.5106 0.4737 0.3524
0.5450 0.4671 0.5264
0.4561 0.5077 0.0989
0.5271 0.5257 0.2429
0.4888 0.4780 0.2917
0.4989 0.4954 0.3823
0.5303 0.5434 0.8667
0.5277 0.5127 0.7140
0.4982 0.5195 0.9776
0.4917 0.4564 0.6383
0.5435 0.5110 0.7187
0.4976 0.4864 0.6280
0.5348 0.4857 0.4352
0.5064 0.5276 0.0512
0.4643 0.4582 0.6759
0.5216 0.4837 0.4933
0.5032 0.5231 0.5651
0.5186 0.4727 0.0899
0.5205 0.4911 0.5822
0.5361 0.4976 0.7254
0.4857 0.4686 0.7561
0.4921 0.5345 0.1699
0.5187 0.4793 0.6985
0.5303 0.4608 0.1401
0.4758 0.4749 0.1874
0.4797 0.5139 0.1505
0.5249 0.5202 0.8439
0.4665 0.4922 0.8830
0.4654 0.4983 0.4934
0.4629 0.5211 0.7429
0.4748 0.5292 0.3050
0.4934 0.4774 0.3668
0.4612 0.4575 0.7583
0.4622 0.5333 0.2075
0.5459 0.5039 0.1553
0.5170 0.4653 0.4455
0.4761 0.5386 0.3007
0.5132 0.5139 0.3576
0.5327 0.5190 0.6309
0.4803 0.5317 0.6078
0.5340 0.4888 0.8289
0.4744 0.4921 0.5811
0.5052 0.4849 0.5100
0.5390 0.5286 0.0232
0.5139 0.5052 0.5784
0.5211 0.4626 0.8834
0.5492 0.5426 0.9240
0.4679 0.5067 0.4583
0.5274 0.4917 0.3879
0.4633 0.5325 0.8715
0.5472 0.5414 0.2959
0.5460 0.4867 0.6398
0.5167 0.5093 0.6313
0.4772 0.4703 0.0218
0.5363 0.4530 0.9721
0.4802 0.4741 0.6853
0.5067 0.5280 0.8642
0.5374 0.5144 0.5750
0.4510 0.5054 0.7363
0.4613 0.5127 0.6001
0.5109 0.4944 0.1849
0.4993 0.5162 0.6067
0.4696 0.5218 0.8200
0.5352 0.4781 0.0634
0.4924 0.4597 0.0010
0.4716 0.4791 0.6176
0.5115 0.4639 0.1558
0.4772 0.5068 0.6079
0.4658 0.4872 0.4450
0.4991 0.5246 0.1302
0.4580 0.5432 0.8149
0.5322 0.5299 0.7672
0.5287 0.5339 0.1349
0.4852 0.4632 0.7305
0.4534 0.4631 0.6563
0.5243 0.5192 0.1862
0.5225 0.4656 0.7383
0.5283 0.4817 0.2173
0.4704 0.5302 0.5555
0.4958 0.5452 0.7387
0.5044 0.5103 0.0573
0.5175 0.5027 0.1608
0.4710 0.5384 0.9434
0.5426 0.4635 0.0174
0.5202 0.4920 0.3270
0.5023 0.4934 0.2974
0.4847 0.4840 0.3202
0.5205 0.5448 0.4733
0.4915 0.5197 0.2318
0.5489 0.5326 0.6233
0.4879 0.5241 0.0439
0.5356 0.4978 0.8978
0.4798 0.4564 0.3895
0.5277 0.4902 0.9620
0.4902 0.5250 0.1913
0.5015 0.5081 0.0491
0.5048 0.5498 0.0037
0.4547 0.4584 0.3536
0.5396 0.5480 0.8108
0.5254 0.4786 0.2880
0.5166 0.4706 0.6351
0.4556 0.5367 0.8460
0.5132 0.4512 0.0864
0.5361 0.5121 0.3581
0.4954 0.5458 0.7822
0.5414 0.4775 0.4587
0.5500 0.4922 0.4035
0.4939 0.4546 0.1128
0.5096 0.4522 0.0913
0.4592 0.4508 0.8635
0.5012 0.5103 0.4230
0.5138 0.5213 0.2074
0.4600 0.5403 0.2008
0.4607 0.4619 0.6811
0.4904 0.4611 0.4868
0.4783 0.5372 0.0783
0.4904 0.5088 0.4107
0.5267 0.4980 0.6831
0.4663 0.4872 0.5703
0.5460 0.5305 0.4104
0.5136 0.4865 0.2521
0.5186 0.5227 0.5436
0.4708 0.4951 0.3456
0.5487 0.4746 0.3889
0.5205 0.4689 0.1150
0.5473 0.4645 0.2443
0.4566 0.5202 0.6804
0.4927 0.5439 0.1856
0.5282 0.4900 0.6252
0.4612 0.5464 0.2610
0.4678 0.4680 0.8133
0.5309 0.4746 0.3130
0.4770 0.5001 0.2930
0.4936 0.5046 0.2707
0.4727 0.4760 0.4709
0.4744 0.5391 0.8123
0.4772 0.4716 0.0849
0.4592 0.5458 0.8308
0.5468 0.4732 0.2242
0.5266 0.4531 0.3219
0.4667 0.4744 0.3802
0.5029 0.4728 0.1224
0.5038 0.4532 0.5693
0.5449 0.5109 0.0525
0.4869 0.5128 0.2680
0.5034 0.4959 0.4313
0.5475 0.5494 0.3045
0.5307 0.5449 0.4253
0.4849 0.4611 0.6816
0.5311 0.4997 0.8754
0.4783 0.5128 0.3450
0.4584 0.4692 0.1762
0.5055 0.5317 0.5581
0.4946 0.4507 0.4147
0.5287 0.5121 0.6358
0.4639 0.4838 0.4780
0.5414 0.5258 0.8724
0.4852 0.4530 0.2295
0.5392 0.4656 0.9816
0.5231 0.5202 0.8333
0.4748 0.5447 0.2785
0.4546 0.5155 0.0514
0.4603 0.4746 0.4882
0.5445 0.4586 0.0213
0.5110 0.5158 0.6554
0.4909 0.5037 0.4773
0.4900 0.5194 0.9092
0.4900 0.4836 0.5265
0.5262 0.5484 0.8731
0.4701 0.5410 0.6367
0.5222 0.5382 0.7465
0.4778 0.5203 0.6288
0.5381 0.4870 0.0490
0.5195 0.4998 0.7798
0.5271 0.5152 0.0834
0.5269 0.4904 0.5065
0.4933 0.5118 0.3819
0.5069 0.4536 0.5030
0.4722 0.4741 0.9586
0.5076 0.4662 0.6655
0.5404 0.4737 0.8522
0.5424 0.4861 0.5094
0.5382 0.4616 0.9132
0.5130 0.5252 0.5412
0.5324 0.4569 0.3666
0.5167 0.5149 0.1933
0.5386 0.5246 0.0282
0.5256 0.4531 0.1461
0.4740 0.4953 0.1582
0.4917 0.5435 0.4543
0.4879 0.5252 0.4676
0.4953 0.5274 0.5474
0.5362 0.5015 0.8144
0.4778 0.4825 0.8388
0.5111 0.5264 0.4194
0.4738 0.4751 0.4067
0.4941 0.5047 0.4770
0.5440 0.5366 0.0785
0.5430 0.5097 0.3033
0.5399 0.4826 0.5531
0.5302 0.4695 0.7360
0.4921 0.4671 0.3248
0.4970 0.4963 0.9278
0.4665 0.5053 0.6652
0.4964 0.5275 0.7441
0.4628 0.4931 0.1791
0.4608 0.4990 0.9217
0.4711 0.5300 0.5621
0.5416 0.5313 0.3746
0.4626 0.4838 0.2421
0.4965 0.5413 0.6751
0.4692 0.5186 0.3989
0.4649 0.4631 0.8848
0.5486 0.4542 0.3177
0.5410 0.5070 0.4045
0.5167 0.4741 0.7260
0.5395 0.4917 0.1887
0.5443 0.4570 0.0573
0.4757 0.4913 0.3980
0.5074 0.5001 0.4662
0.5175 0.4757 0.5560
0.5010 0.4876 0.5453
0.5224 0.5012 0.1240
0.5137 0.5444 0.6997
0.4893 0.5127 0.1170
0.5035 0.4920 0.6690
0.5230 0.5436 0.3192
0.5032 0.4766 0.1856
0.5093 0.4637 0.0589
0.5319 0.5276 0.2505
0.5388 0.5208 0.9661
0.5001 0.5431 0.4467
0.5416 0.5448 0.1366
0.5004 0.4855 0.5011
0.4554 0.5214 0.8202
0.5195 0.5439 0.2452
0.5159 0.4514 0.3046
0.4588 0.5201 0.0905
0.5009 0.4669 0.0602
0.5492 0.5459 0.5774
0.4602 0.5158 0.1240
0.4744 0.5393 0.6149
0.5361 0.4800 0.0661
0.5390 0.5032 0.9403
0.4765 0.4671 0.7682
0.4583 0.5188 0.5692
0.4693 0.5108 0.5261
0.4510 0.5278 0.4987
0.4838 0.5119 0.1056
0.4718 0.5357 0.8370
0.5487 0.4586 0.7876
0.4970 0.5275 0.8521
0.4927 0.5328 0.7829
0.4920 0.4603 0.7636
0.5010 0.4815 0.4275
0.4930 0.4781 0.2073
0.4839 0.5432 0.7195
0.5145 0.4772 0.1021
0.4532 0.4726 0.5108
0.5473 0.4870 0.8200
0.5322 0.4852 0.9069
0.5165 0.4661 0.6406
0.4569 0.4924 0.1712
0.5026 0.4725 0.1239
0.4652 0.4942 0.4274
0.4508 0.5262 0.1914
0.4624 0.4848 0.5313
0.4825 0.4797 0.4383
0.4892 0.4782 0.0558
0.5175 0.5458 0.9359
0.5467 0.5366 0.8362
0.4621 0.5401 0.9907
0.4698 0.5209 0.2639
0.4693 0.4650 0.5529
0.5005 0.4938 0.2888
0.4882 0.4684 0.7632
0.5320 0.5489 0.7724
0.5367 0.4579 0.1507
0.4692 0.5140 0.7511
0.4610 0.5013 0.9233
0.4775 0.4976 0.6994
0.4663 0.5021 0.8471
0.4900 0.5287 0.6185
0.5345 0.5293 0.9050
0.4651 0.4923 0.6258
0.5215 0.5493 0.8493
0.5061 0.4966 0.6237
0.4563 0.4624 0.5933
0.4535 0.5374 0.9957
0.5437 0.4628 0.2667
0.4684 0.4863 0.7646
0.5385 0.4893 0.5834
0.5461 0.4756 0.0092
0.4695 0.4542 0.1513
0.5396 0.4834 0.5933
0.4573 0.4630 0.4194
0.5405 0.4792 0.1147
0.5050 0.4982 0.0744
0.4718 0.4988 0.3073
0.5014 0.5368 0.3305
0.4953 0.4849 0.4710
0.5060 0.5444 0.6242
0.4617 0.5084 0.6863
0.4650 0.4573 0.0659
0.4533 0.5398 0.3948
0.5016 0.4526 0.7088
0.4656 0.5294 0.4158
0.4981 0.4696 0.0718
0.4877 0.5022 0.5608
0.5214 0.4904 0.2063
0.5301 0.5101 0.2110
0.4772 0.4776 0.1992
0.5037 0.5148 0.2876
0.4937 0.5100 0.0465
0.4739 0.4632 0.0508
0.4786 0.5083 0.8546
0.4553 0.4801 0.2474
0.4588 0.4935 0.5639
0.5245 0.5105 0.4126
0.5028 0.5082 0.8168
0.5077 0.5217 0.5301
0.5127 0.4972 0.7272
0.4550 0.5346 0.1098
0.4573 0.5455 0.5006
0.5262 0.4678 0.3260
0.4582 0.4849 0.1969
0.5458 0.5498 0.0295
0.4981 0.4770 0.9775
0.5033 0.5203 0.4007
0.5411 0.5332 0.4604
0.4978 0.4913 0.5088
0.4616 0.4812 0.4367
0.5474 0.4621 0.6116
0.4747 0.4651 0.4359
0.4659 0.4960 0.6816
0.4799 0.4946 0.5362
0.5437 0.4533 0.7480
0.5419 0.4707 0.2931
0.5153 0.4595 0.6624
0.5302 0.5058 0.3053
0.5244 0.4955 0.0501
0.4665 0.4931 0.8531
0.4505 0.4936 0.1443
0.5137 0.5025 0.8884
0.5268 0.5076 0.3450
0.5077 0.4537 0.9455
0.5311 0.4914 0.6461
0.5077 0.5192 0.0491
0.4946 0.4700 0.4358
0.5116 0.5446 0.4863
0.4853 0.5095 0.5234
0.4927 0.4691 0.5468
0.4672 0.5183 0.7009
0.5035 0.4637 0.8682
0.5294 0.5084 0.0150
0.5266 0.5163 0.3976
0.5320 0.5030 0.2774
0.4621 0.4885 0.7899
0.4762 0.5475 0.5854
0.4726 0.5180 0.6394
0.4879 0.4588 0.6785
0.4781 0.4545 0.2196
0.5294 0.4939 0.7417
0.4613 0.4558 0.5180
0.5271 0.4821 0.1399
0.4518 0.4997 0.0361
0.4807 0.5279 0.9566
0.4696 0.4647 0.0598
0.5011 0.5287 0.8616
0.5261 0.5109 0.4146
0.4517 0.5157 0.3301
0.4759 0.4962 0.2564
0.4820 0.4578 0.0635
0.4972 0.4785 0.7955
0.4707 0.4996 0.0241
0.4835 0.4971 0.4657
0.4540 0.5242 0.3602
0.5215 0.5122 0.8421
0.4624 0.5098 0.1795
0.5408 0.5256 0.1490
0.5146 0.5103 0.3959
0.5136 0.4541 0.5146
0.5422 0.5393 0.9208
0.5167 0.4664 0.8937
0.5022 0.4798 0.6091
0.4567 0.4991 0.4974
0.4968 0.4784 0.6618
0.4941 0.5208 0.6405
0.5031 0.5309 0.7050
0.4863 0.4780 0.1492
0.5395 0.4732 0.2549
0.5038 0.4860 0.5803
0.5125 0.4597 0.3629
0.4529 0.5086 0.8887
0.5481 0.5419 0.7923
0.5141 0.4930 0.9459
0.4791 0.4671 0.2650
0.4942 0.5316 0.7159
0.5164 0.4707 0.6590
0.5083 0.4904 0.0015
0.5280 0.4819 0.1761
0.5492 0.4818 0.7241
0.4634 0.4918 0.5736
0.5190 0.5342 0.7722
0.5398 0.4925 0.5739
0.5065 0.4571 0.3632
0.5411 0.5267 0.8695
0.4600 0.4587 0.9260
0.5303 0.5360 0.7696
0.5370 0.5119 0.4337
0.4561 0.4639 0.7974
0.4850 0.4914 0.4180
0.5087 0.5141 0.8565
0.4578 0.5067 0.9425
0.5002 0.5271 0.8745
0.5191 0.5498 0.0879
0.4643 0.5165 0.9474
0.5292 0.5031 0.1029
0.5051 0.4874 0.0949
0.4635 0.4763 0.6594
0.4565 0.4520 0.4001
0.5373 0.4582 0.7629
0.4860 0.4634 0.6810
0.5474 0.4725 0.6315
0.5245 0.4644 0.0830
0.5293 0.5162 0.5975
0.4938 0.5217 0.1743
0.4824 0.4774 0.3958
0.5286 0.4684 0.5587
0.5113 0.5396 0.6450
0.4649 0.4551 0.0885
0.4722 0.4553 0.2567
0.4756 0.4547 0.8525
0.5175 0.5347 0.0407
0.4627 0.5447 0.1427
0.4812 0.5074 0.3487
0.5496 0.4689 0.7270
0.5088 0.4661 0.2089
0.4727 0.4962 0.6170
0.5023 0.5434 0.5474
0.4721 0.4803 0.6828
0.4707 0.4666 0.7565
0.5450 0.4560 0.1768
0.5190 0.4889 0.1474
0.5016 0.5318 0.4834
0.5438 0.4889 0.1228
0.4584 0.4533 0.5887
0.4892 0.5384 0.4155
0.4929 0.4975 0.0397
0.5061 0.4826 0.5411
0.5335 0.4943 0.9050
0.5194 0.4713 0.5737
0.5365 0.4694 0.9997
0.5223 0.5347 0.1854
0.4699 0.5185 0.1285
0.5216 0.5120 0.8158
0.5163 0.4589 0.7806
0.5073 0.5145 0.3890
0.4903 0.5144 0.0289
0.5407 0.5199 0.1767
0.5241 0.5468 0.3442
0.5493 0.4564 0.0760
0.5032 0.5487 0.4984
0.4718 0.5008 0.9686
0.5199 0.4884 0.8213
0.5072 0.5077 0.5027
0.5205 0.4684 0.5794
0.4687 0.5494 0.0787
0.4728 0.4876 0.5745
0.4634 0.4542 0.3615
0.4682 0.5172 0.5769
0.4624 0.4744 0.8822
0.5236 0.4714 0.3331
0.5200 0.4743 0.6130
0.5319 0.5352 0.6521
0.5230 0.5423 0.9505
0.4763 0.4757 0.1961
0.4581 0.5077 0.4982
0.5180 0.4654 0.6905
0.4916 0.5196 0.6502
0.5388 0.4753 0.4067
0.5302 0.4591 0.2411
0.5449 0.4636 0.7946
0.4818 0.4948 0.7138
0.4585 0.5026 0.1705
0.4944 0.5096 0.9693
0.5195 0.4627 0.3660
0.4623 0.4686 0.1753
0.5323 0.4623 0.9177
0.5039 0.5482 0.0975
0.4762 0.4919 0.9974
0.5413 0.4570 0.4703
0.5253 0.5059 0.0207
0.4865 0.5458 0.8213
0.4872 0.5402 0.6593
0.5434 0.5429 0.6717
0.4509 0.5192 0.2059
0.4993 0.5336 0.7345
0.4943 0.5466 0.8032
0.4517 0.5292 0.2530
0.5081 0.4851 0.8868
0.4678 0.5454 0.7996
0.4525 0.4692 0.4798
0.5264 0.4796 0.9739
0.5368 0.5172 0.3124
0.5305 0.4622 0.8588
0.4671 0.5368 0.4495
0.5038 0.4691 0.7925
0.5367 0.5163 0.4285
0.4585 0.4519 0.9749
0.5201 0.4599 0.0800
0.5019 0.5443 0.0891
0.5358 0.5302 0.6163
0.5491 0.4741 0.5751
0.4849 0.5176 0.0757
0.4837 0.4633 0.1112
0.5486 0.5106 0.8396
0.5227 0.4944 0.3765
0.5394 0.5074 0.5000
0.5180 0.5039 0.3552
0.5289 0.5086 0.1358
0.4983 0.5353 0.1969
0.4906 0.5212 0.3211
0.5074 0.4787 0.1275
0.4951 0.5072 0.8832
0.5406 0.5275 0.4336
0.5194 0.5021 0.0329
0.4974 0.5106 0.6025
0.5063 0.4943 0.5060
0.5020 0.5491 0.5760
0.4619 0.5291 0.2306
0.4542 0.4798 0.9253
0.5221 0.4763 0.4915
0.5106 0.4764 0.2452
0.5387 0.4531 0.8095
0.4908 0.4786 0.8405
0.4562 0.5455 0.9630
0.5203 0.5125 0.0588
0.4756 0.5119 0.1657
0.4622 0.4732 0.1542
0.5031 0.4553 0.1513
0.5259 0.5129 0.7953
0.4505 0.4934 0.5911
0.5068 0.5146 0.8628
0.4757 0.4715 0.0462
0.5060 0.4767 0.4523
0.4691 0.5369 0.4244
0.5335 0.5262 0.3589
0.4752 0.5446 0.4117
0.5478 0.4691 0.6298
0.5040 0.4656 0.6571
0.4830 0.5288 0.8765
0.5076 0.5351 0.3186
0.4519 0.4924 0.7533
0.4691 0.4515 0.1486
0.4703 0.5365 0.9199
0.4761 0.4936 0.1187
0.5054 0.4717 0.1159
0.4632 0.5039 0.8292
0.4827 0.4505 0.4357
0.4896 0.4815 0.2947
0.5111 0.5127 0.2919
0.4719 0.4751 0.8664
0.5451 0.4500 0.9748
0.5087 0.4986 0.7733
0.4657 0.4660 0.4252
0.5177 0.5266 0.6179
0.4725 0.5070 0.6148
0.4744 0.5348 0.4219
0.5482 0.5235 0.1038
0.5107 0.4772 0.0257
0.4975 0.5326 0.0720
0.5114 0.4515 0.0993
0.5139 0.5261 0.7664
0.5288 0.5207 0.2326
0.5448 0.4911 0.3930
0.4771 0.4749 0.7891
0.4864 0.4629 0.7708
0.5383 0.4594 0.1711
0.5372 0.4729 0.7650
0.5082 0.5477 0.8659
0.4725 0.5100 0.3845
0.5150 0.5456 0.9055
0.5437 0.5256 0.8425
0.5360 0.4795 0.7352
0.4957 0.5084 0.1772
0.4899 0.4669 0.6630
0.4517 0.5088 0.7101
0.5355 0.4794 0.6799
0.5094 0.4903 0.4258
0.4995 0.5475 0.1186
0.4669 0.5307 0.5698
0.5342 0.5406 0.0669
0.5034 0.4973 0.5603
0.4561 0.5408 0.9976
0.5021 0.4559 0.4056
0.4965 0.4521 0.2164
0.5156 0.5479 0.0926
0.4989 0.5074 0.1235
0.5324 0.4983 0.8698
0.5468 0.4601 0.6324
0.5119 0.4744 0.2769
0.4789 0.4569 0.1062
0.5194 0.5175 0.1329
0.4584 0.5241 0.9167
0.4680 0.5001 0.7261
0.4605 0.4946 0.7745
0.5339 0.4944 0.4867
0.5399 0.5198 0.9753
0.4716 0.5185 0.4593
0.5483 0.4898 0.0407
0.5418 0.5374 0.1152
0.4530 0.4782 0.0157
0.4993 0.5244 0.8319
0.4893 0.4691 0.7637
0.5313 0.5169 0.4494
0.4680 0.5306 0.9484
0.5347 0.4692 0.5985
0.5235 0.4823 0.5065
0.4971 0.5296 0.5281
0.5172 0.5167 0.0065
0.4639 0.5409 0.7051
0.4937 0.4843 0.7751
0.4851 0.4640 0.5048
0.5117 0.5135 0.4492
0.4816 0.5337 0.1819
0.4960 0.5333 0.4933
0.4642 0.5001 0.7490
0.4605 0.4912 0.7517
0.5046 0.5395 0.3458
0.5177 0.4949 0.4279
0.5436 0.5276 0.2025
0.5017 0.4742 0.1573
0.4544 0.4921 0.7051
0.5090 0.5364 0.6053
0.5465 0.4778 0.1513
0.4731 0.4713 0.5852
0.5150 0.4527 0.6781
0.4546 0.5440 0.7939
0.5150 0.4636 0.4584
0.4625 0.4943 0.9769
0.5429 0.4559 0.3490
0.5323 0.4687 0.6737
0.5251 0.4886 0.9242
0.5385 0.4827 0.9063
0.5157 0.4539 0.4779
0.4821 0.5309 0.5051
0.5263 0.4837 0.3742
0.5084 0.4834 0.8862
0.5035 0.4532 0.8515
0.4620 0.4564 0.0843
0.4928 0.4570 0.3920
0.5071 0.5058 0.8508
0.5413 0.4892 0.1364
0.4846 0.5406 0.9094
0.4661 0.5166 0.1799
0.4999 0.4713 0.5709
0.4830 0.4907 0.7025
0.5029 0.5300 0.3509
0.5086 0.4579 0.2082
0.4911 0.4664 0.5992
0.5456 0.4850 0.0116
0.5072 0.4938 0.4351
0.5156 0.5081 0.8776
0.4646 0.4953 0.0824
0.4581 0.5376 0.5347
0.4892 0.4922 0.4559
0.4926 0.5485 0.1783
0.4824 0.5177 0.4056
0.4524 0.5338 0.9262
0.5254 0.5193 0.6250
0.5192 0.4982 0.4900
